# .PCD v0.7 - Point Cloud Data file format
VERSION 0.7
FIELDS x y z intensity
SIZE 4 4 4 4
TYPE F F F F
COUNT 1 1 1 1
WIDTH 1279
HEIGHT 1
VIEWPOINT 0 0 0 1 0 0 0
POINTS 1279
DATA ascii
30.838072 -1.7767491 7.9754958 5.6666665
43.29261 -1.8424054 7.9162178 5.5
60.516171 -1.7929978 7.7657766 30.25
-6.4266729 -1.3807759 7.7679138 20.164286
-6.3460507 -1.3974922 7.7510958 13.289773
-0.047421124 -1.4163028 7.9415946 4.4642859
0.045155503 -1.4019581 7.952445 7.2666674
2.5325346 -1.5200304 7.9858642 2.3333333
3.7880387 -1.5360956 7.9351373 2
4.1584177 -1.2968297 7.9552264 4
6.1858368 -1.3600726 7.9833899 3.2
12.325039 -1.3866527 7.9648576 6.2121205
12.438088 -1.3499759 7.9681044 5.8499999
18.534086 -1.3326337 7.9864297 4.8000002
24.708862 -1.29373 7.9790215 4.5999999
30.786694 -1.4452956 7.9738045 11.375
30.881124 -1.3983427 7.9630628 5.8000002
36.900227 -1.2327957 7.9680719 2
43.14151 -1.3971717 7.9960756 7
43.298553 -1.2981526 7.8825803 6.8333335
51.697723 -1.3775392 7.9790921 8.0555553
60.50761 -1.4362782 7.7782464 28.777779
-6.4220033 -1.039203 7.7673683 16.350695
-6.3334775 -0.97954661 7.7734933 13.416668
-0.051839948 -1.0661254 7.9227395 8
0.065382212 -1.027853 7.9518232 7.2837839
2.0829458 -1.1644166 7.9934788 2
4.8542943 -0.81254554 7.9707532 1
6.1767011 -0.97280717 7.9772248 6.3048782
12.341004 -1.000528 7.9445529 7.6041665
12.43709 -1.0092219 7.9496388 6.8684211
18.28056 -1.0289354 7.9532819 10
18.570522 -0.9870525 7.975194 4.0357141
24.705063 -0.98410648 7.9771614 4.3333335
30.769617 -1.0709544 7.9279532 9.333333
30.873922 -0.96761066 7.9283819 5.9444447
37.339878 -0.92135274 7.9679885 19
43.1492 -0.96337903 7.9826994 6.1999998
43.243946 -0.96411961 7.986793 4.75
51.726479 -1.0049167 7.963212 7.125
60.516319 -1.0219858 7.7975898 28.631578
-6.4217105 -0.56410795 7.7992239 25.821428
-6.2233944 -0.63448215 7.8051858 13.708333
-5.9627566 -0.6462782 7.8012271 5.6481485
-0.031015482 -0.62908572 7.8950667 4.25
0.072899483 -0.57521713 7.9167604 9.5612249
1.4368343 -0.71728158 7.9969611 2
5.0262208 -0.68331003 7.9691167 5.5
6.2317863 -0.60701573 7.9587455 6.5243902
12.347197 -0.58480597 7.9397888 6.6388888
12.451405 -0.57492721 7.9130654 5
18.575401 -0.57320666 7.964541 5.6990743
24.716858 -0.52903032 7.9707985 7.1842103
24.828005 -0.60138071 7.9699879 1.5
30.781179 -0.6119839 7.8997359 5.5
30.883274 -0.60702211 7.9236379 7.8988099
37.022823 -0.52493495 7.9769177 6.7727275
43.149418 -0.57958722 7.9642692 6.6833329
43.276932 -0.62751991 7.9495811 5.2450981
50.489906 -0.51542377 7.9513564 1
51.731388 -0.60831255 7.9373684 6.5416665
60.525017 -0.58466029 7.7947206 25.333334
-6.4218669 -0.20284857 7.7961559 25.812498
-6.3609867 -0.16987872 7.804215 27.918442
-0.041319542 -0.21754792 7.8656597 3.1111112
0.083320133 -0.20298907 7.9069519 8.1777782
0.60602999 -0.23630092 7.9848161 3.5
6.2366047 -0.21082643 7.9459424 5.9194913
6.7139277 -0.29815245 7.8934455 2
12.352139 -0.16133045 7.9181066 7.5833335
12.446548 -0.17598376 7.906497 8.4444437
18.397093 -0.042006403 7.904388 29
18.609587 -0.19102815 7.9365702 5.5394735
24.722496 -0.17819703 7.9526958 5.7058825
24.815704 -0.22710061 7.9398041 2.8
30.781029 -0.16216373 7.9307594 9
30.88138 -0.23259608 7.9101753 8.4464283
37.043045 -0.1853479 7.9575825 7.8636365
43.153198 -0.22673243 7.9434566 6.375
43.259624 -0.24815086 7.9457407 6.375
49.756245 -0.09027195 7.893384 2
51.757076 -0.22848648 7.9013157 4.5833335
60.548759 -0.16298364 7.7581291 27.407408
-6.4088101 0.084940463 7.6889801 28.611111
-6.3259845 0.20645839 7.801959 25.556278
-0.033238333 0.086944915 7.8446503 1.5
0.12352527 0.19026181 7.8951073 8.9671354
6.2535462 0.20508878 7.9254241 6.760869
12.363608 0.16398013 7.8794947 7.3055553
12.451957 0.19744527 7.8732519 8.3625002
18.619102 0.17801967 7.9278579 6.9499998
24.390057 0.17765465 7.9026871 6
24.740295 0.18169922 7.9164128 6.3499999
24.844816 0.19827734 7.933558 5.3928571
30.715385 0.026925087 7.8504939 3
30.901291 0.19415815 7.8711181 9.1612902
37.075794 0.25242195 7.9380083 6.4473686
37.207417 0.27692974 7.9002194 7
43.171337 0.16708229 7.9307232 5.3888893
43.269932 0.17180212 7.918663 7.4743595
45.430298 0.25739071 7.8525844 1.6666666
45.656559 0.37382507 7.7990618 2
49.554218 0.098444939 7.8940067 1
51.757175 0.24895272 7.8550844 9.979166
60.295307 0.10752392 7.986413 6
60.559525 0.2069328 7.8068323 26.79365
-6.4035411 0.53539473 7.7867808 21.666666
-6.3269672 0.5990665 7.8042693 24.910852
-0.052280903 0.45557594 7.7958469 2
0.13894077 0.60613316 7.8584943 8.0752306
5.8505235 0.73745823 7.9767032 2
6.267097 0.62800652 7.9117861 7.8502221
6.8833585 0.79693365 7.8031559 2
12.366906 0.56992233 7.8944526 6.5625
12.464704 0.61571658 7.868762 8.5102339
18.63217 0.61146206 7.9086728 6.507246
19.230389 0.66350043 7.9586964 1
24.399303 0.7239542 7.7443237 5
24.754335 0.57600784 7.9129124 7.46875
24.838604 0.68708664 7.9354353 6.9111109
30.915169 0.61563075 7.8942633 9.2361116
37.078106 0.6181426 7.9113746 6.9444447
43.167053 0.59750909 7.9271932 9.9642859
43.261421 0.60690039 7.8749261 8.1987171
45.921268 0.52406025 7.7721944 2
46.129662 0.61233997 7.767663 2
46.457275 0.79712772 7.7183523 2
48.698788 0.58881474 7.7854447 3
51.733135 0.61372966 7.8352456 8.3000002
60.240822 0.55638409 7.9073005 6
60.568718 0.57104737 7.7506046 26.944445
-6.4056516 0.88424671 7.7946839 16
-6.2575049 1.0175657 7.8362498 21.445158
-5.9625158 0.9398905 7.955512 6.5
-0.087914348 0.94051379 7.7989626 4.25
0.14082952 1.0148714 7.8293071 8.8722944
5.8977299 1.0536413 7.8596821 2
6.2522445 1.0090446 7.8977447 6.6282053
6.4417567 1.1161057 7.934629 7.6666665
12.363928 0.92113549 7.8744845 6.6923075
12.475591 1.0168705 7.8437018 8.2845917
18.265226 0.91718936 7.8043499 10
18.639788 0.99850613 7.8774781 7.0376344
18.816219 1.0348954 7.9299746 9.75
19.576239 0.90995222 7.9351826 2
19.804066 1.1310364 7.8841 2.25
24.765787 0.98085225 7.8914871 7.6341085
24.839178 1.0514348 7.9026356 7
30.929607 0.9918018 7.8537898 9.344203
37.084953 0.96100819 7.8704429 7.2564106
37.293194 1.0553589 7.974185 3
43.154629 1.0027121 7.8588014 5.5714288
43.279877 1.0144628 7.8481445 8.125
46.76899 1.0100374 7.7255921 3
47.108429 1.1331134 7.6760845 2
48.115864 0.9208107 7.7799869 2
51.772232 1.0164993 7.7710137 8.1333332
60.315495 1.0229796 7.893827 8.333333
60.566067 1.0194619 7.7482452 22.894737
-6.2500052 1.3961146 7.8331008 21.871286
-5.9799833 1.4595019 7.9216919 8.8214283
0.15533198 1.4097955 7.8076749 9.5363245
0.55742377 1.510221 7.899744 8.833333
1.8826618 1.5604839 7.9346066 12
6.2971969 1.4048536 7.8615494 7.4041662
6.42835 1.3345312 7.9404702 12.333333
12.344005 1.3864968 7.7973132 8.1428576
12.477015 1.4039881 7.8282485 8.8410091
18.384954 1.215745 7.9030328 2.5
18.650475 1.3989532 7.8508902 8.1763887
18.861448 1.5688896 7.9245672 23
19.94421 1.3233964 7.9175901 2
20.164587 1.3666096 7.8236041 2.25
20.439978 1.572669 7.7968102 2
22.100439 1.5112205 7.724318 5
22.9548 1.4866083 7.8272052 1
23.220758 1.2572041 7.8844657 2
24.755068 1.4142264 7.8350554 8.8737373
24.850714 1.4172748 7.8493042 8.1142855
30.703388 1.2369022 7.8555799 3
30.943413 1.4317223 7.8289046 10.887387
37.09499 1.4169855 7.8309741 7.151515
37.239235 1.2094905 7.8435702 6
43.123775 1.2831014 7.7798104 3.25
43.292896 1.4164408 7.818747 9.4838705
47.367981 1.3951387 7.7118859 2.5
47.771553 1.4159145 7.7036533 4.25
51.784847 1.4029826 7.8218064 9.431818
60.290249 1.3494217 7.9210043 14.25
60.570389 1.3758574 7.7725391 27
-51.585136 1.6344032 7.719985 38
-6.5842972 1.6163193 7.6378112 82
-6.2370095 1.806627 7.8087287 23.07967
-5.9778285 1.8370968 7.9019938 8.994792
-0.11642575 1.8253138 7.7158685 2
0.17847045 1.8070613 7.794682 10
0.77435732 1.8308558 7.7466388 6
1.0386267 1.822763 7.765882 1.3333334
1.2987964 1.9754143 7.7665663 2
5.2735853 1.7773144 7.8779101 1.5
6.2980833 1.7802596 7.8471303 7.1986303
6.4060698 1.6716805 7.9006448 5.6666665
12.395397 1.8813629 7.8396006 9
12.489203 1.8358545 7.8112082 9.5684929
13.221367 1.9220872 7.8784618 22
18.279902 1.9626782 7.7625318 22
18.667212 1.8038719 7.8024535 8.4277773
20.366852 1.6683748 7.8811889 2
20.680346 1.7970691 7.7711082 1.3333334
22.718597 1.7912149 7.8440981 2
24.729822 1.7472298 7.8439898 9.7685184
24.860823 1.8308159 7.8314304 8.6149998
30.960497 1.8143589 7.7862835 8.636054
34.475647 1.7565112 7.8770919 24
37.106304 1.8120192 7.8218908 9.6142855
37.226082 1.7788454 7.7588844 4.0625
43.054035 1.7737397 7.7334938 3.6666667
43.293152 1.7940754 7.8070641 10.454545
48.4226 1.8641491 7.6273632 2
51.793793 1.8080354 7.7849307 11.75
60.301632 1.764053 7.928019 7.25
60.595581 1.7891454 7.7403321 31.818182
-6.2213368 2.1864097 7.80689 21.55945
-5.955204 2.2729037 7.8893514 9.1995792
0.19717222 2.1936843 7.7642317 9.2631578
1.4975365 2.1863096 7.7484107 1.5
1.6313519 2.2730339 7.7202058 1.5
4.6752858 2.2455933 7.8195386 4
4.8435998 2.0794568 7.7732019 5
6.3249722 2.2074955 7.8156853 7.9283333
6.4235568 2.2939608 7.8731723 8.1410255
12.367969 2.1085413 7.7756128 7.5999999
12.502306 2.2096388 7.7539949 10.851869
13.989642 2.333087 7.9905863 4
18.677887 2.2076283 7.7993927 9.3544168
18.820343 2.2692852 7.7082095 4.625
21.172234 2.0766637 7.7708821 1
21.293793 2.2394373 7.713346 1
22.163334 2.2504148 7.7730703 2
22.472761 2.0232811 7.8249006 1.5
24.776087 2.2346563 7.7655377 6.318182
24.861914 2.2292676 7.790329 9.0247555
25.742653 2.012001 7.8654118 8
30.973886 2.1996322 7.7488842 8.9499998
37.131607 2.1903262 7.7739906 8.604167
37.232735 2.2112257 7.725626 5.1875
40.496975 2.3586361 7.9884872 2
43.125015 2.3221049 7.7020898 4
43.281048 2.2218552 7.7964296 11.25
46.090332 2.3374245 7.728529 3
46.425571 2.0510635 7.7313623 2
51.81126 2.1802907 7.7949982 10.525
52.307602 2.0224485 7.9977903 11
60.34713 2.2492485 7.9288492 9
60.565125 2.2346311 7.7552261 24.583334
-6.407299 2.6503816 7.8291907 28
-6.2037129 2.5954289 7.7857409 20.109377
-5.9506063 2.6060784 7.8560109 11.966146
-5.5212135 2.5605206 7.7371426 8
0.23259664 2.6154487 7.76336 10.648648
0.69120818 2.5653389 7.8443942 10.666667
1.9619102 2.5074325 7.7037325 1.5
2.0898159 2.6115427 7.6927958 1.7777778
4.2961268 2.5431888 7.7868872 1
4.5134516 2.5034063 7.8250709 5.3333335
6.3172641 2.578263 7.755055 7.7132607
6.4457521 2.6159232 7.8317237 8.1851854
12.243406 2.4615736 7.954803 3.5
12.516882 2.6148827 7.7400975 10.548077
18.688507 2.5873818 7.7773337 8.871376
18.82575 2.7347846 7.7046404 8
21.724255 2.6119401 7.7053852 1.8181819
22.089415 2.779603 7.6603622 2.5
24.755424 2.5734968 7.7075624 4
24.859602 2.5982015 7.8004122 9.9874029
30.989006 2.5949976 7.8255024 10.928572
35.694511 2.7463655 7.9430227 17
36.664543 2.5992193 7.9557476 11.5
37.138329 2.6173899 7.779706 9.0888891
37.243725 2.589376 7.7377372 5.8571429
43.313629 2.5894022 7.859839 11.608696
45.452553 2.7059278 7.7568932 2
45.734909 2.4670119 7.7085757 4.5
51.834347 2.615046 7.8045726 12.09375
60.331699 2.5640712 7.9203568 13.166667
60.583668 2.5828137 7.7375836 20.166666
60.802269 2.7146618 7.6027169 15
-6.2016435 2.9945343 7.7586284 18.759008
-5.9416819 3.0090675 7.8591838 9.8464918
-5.2946815 2.804018 7.8062778 8
-4.0954981 3.1869764 7.9607759 4
-3.7670276 3.1752617 7.9679852 11
-3.5525067 3.1799116 7.9907866 3
-2.8034413 3.125742 7.9969463 15
-2.7846384 3.152709 7.9238939 4
-2.1906769 3.1321237 7.9857564 4
-1.7804073 3.0894318 7.9813199 7.3333335
-1.5988045 3.0485516 7.9845133 5
-1.0467319 3.0489855 7.9625721 4
-0.56776857 3.0322514 7.9955239 6
-0.21570617 3.0486248 7.9039516 8.5
0.25354362 3.0082731 7.7656217 10.95
0.64566481 3.0112908 7.9946957 8
0.95564055 2.8751311 7.6256461 7.5
2.3697052 2.8969812 7.9829755 10
2.5935237 2.958746 7.6509523 1.2
2.8322115 3.1507857 7.6289239 2.6666667
3.8276243 3.011857 7.7008643 1
6.3494549 2.9923201 7.7304864 8.6405058
6.4556947 3.0287523 7.8232675 9.7598038
7.1416249 3.0774293 7.7322965 6
12.104337 2.8567188 7.7649474 5
12.539918 3.0088112 7.7826037 12.027397
15.279959 3.131005 7.9960737 7
18.25341 3.0034602 7.9444833 15
18.70364 3.0125551 7.8010035 10.951746
18.851833 2.9115453 7.705946 11
21.389032 2.9416115 7.7534904 3
22.145563 2.8821054 7.6511331 1.8
22.647982 3.1346517 7.6895132 1
23.018093 3.0987234 7.9539528 5
24.798529 3.0936298 7.9493661 8
24.868073 2.9940243 7.8032498 10.894809
28.700869 3.1740084 7.9675288 3
29.301476 3.1184638 7.9925175 5
30.701775 2.9845591 7.912447 4.5
30.988403 2.9789901 7.7523952 9.572649
31.367706 2.9940424 7.9408054 4
33.2911 2.9680748 7.9994202 16
35.024136 2.9820983 7.9231882 16
37.153015 2.9704072 7.8127255 9.939394
37.222004 3.1266477 7.8164911 8
42.855183 2.8021784 7.9833493 21.5
43.318832 3.0113678 7.8337402 12.74138
45.286129 2.8024836 7.6681156 2
47.351784 3.0762479 7.9886847 34
51.840302 3.0363662 7.8288159 11.761905
60.342388 2.9993105 7.8863735 8
60.611126 3.0133741 7.6975465 23.75
-6.2012663 3.3848321 7.7369165 21.589373
-5.9212694 3.3752117 7.8074918 9.4364777
-5.46452 3.2967753 7.9852438 7.25
-4.968555 3.2321303 7.9759173 5
0.26102701 3.4004438 7.7710986 13.638257
0.57005644 3.3243232 7.7927532 14.5
3.0795152 3.3320289 7.6273584 1.8
3.3560636 3.4788795 7.6472068 2
6.3506064 3.4009814 7.8061347 8.6761904
6.4569845 3.3867359 7.7826762 11.5
8.6849394 3.362442 7.984375 10
12.558701 3.4028728 7.8040118 10.85
14.123108 3.5195456 7.9837227 26
15.033018 3.5535426 7.9683275 4
18.699957 3.3939776 7.8323574 10.137978
18.939121 3.4371452 7.7879381 10.4
19.584648 3.5586119 7.9748263 5
19.725777 3.5944328 7.9955597 7
20.195736 3.5454588 7.984807 6
20.698233 3.504411 7.8937836 7.3333335
20.990692 3.4323933 7.8151774 4
21.420992 3.4950979 7.999692 4
22.213491 3.4479582 7.9729919 3.5
22.743855 3.3009934 7.6423011 3
22.936443 3.5106487 7.7011366 1
23.204332 3.5556097 7.6946301 1
24.683041 3.3451493 7.8754091 15.266665
24.888838 3.3942521 7.7998629 10.539855
25.35342 3.2725377 7.9494128 8
26.20459 3.2492063 7.9535708 3
31.006227 3.3735058 7.7892747 10.854167
34.619148 3.2229552 7.9511833 30
37.165882 3.427444 7.7924151 10.758064
37.212414 3.4265671 7.7217274 9.909091
43.33503 3.4467797 7.7432323 11.76087
49.058167 3.5908794 7.9896178 15
49.447208 3.580637 7.9931436 12
49.89637 3.5848062 7.9434428 8
50.316097 3.5835452 7.9962854 9.5
50.897869 3.5512762 7.9592376 8
51.338928 3.5072966 7.9914565 14
51.864819 3.3673661 7.7713661 11.333334
52.547821 3.4839478 7.9942322 17
53.008919 3.5136342 7.9539843 11
53.370407 3.4391739 7.9506264 16.5
54.048794 3.3853073 7.9991536 18
54.693863 3.4629426 7.9624662 5
54.82864 3.4083076 7.9333916 15.5
55.785736 3.4712048 7.9621983 14
57.009769 3.3859787 7.9875102 7
57.489857 3.3260691 7.9623604 8.666667
57.892494 3.2856131 7.9799652 6
58.179619 3.2660198 7.9814148 6
59.461075 3.2182369 7.9958844 5
60.33905 3.4547327 7.8276258 8
60.57737 3.4301126 7.6978626 14
-6.1681738 3.8230627 7.7379494 17.171667
-5.9194527 3.8152261 7.8095498 10.352678
0.2594271 3.7967186 7.767951 15.957517
2.8602185 3.9182384 7.6491685 1
3.3193178 3.6100752 7.6339936 1
3.7265131 3.7942622 7.6162643 1.25
6.3659959 3.7999959 7.7989993 10.323214
6.4413075 3.809073 7.7610912 11.080882
6.8154063 3.8472476 7.9473314 8.666667
8.7200584 3.8789003 7.9676208 8.166667
10.682474 3.9727926 7.9465542 9.25
10.907616 3.9695017 7.9699984 6
11.37549 3.9411569 7.9742126 10.714286
11.779324 3.9205353 7.9750767 11.5
12.160232 3.8716044 7.9010272 8.333333
12.560626 3.8150587 7.8476834 11.351851
13.013927 3.8650634 7.9372649 6.0714288
13.394774 3.8443694 7.973299 6.5454545
13.814853 3.8279724 7.9526644 7.5999999
14.240334 3.8197703 7.9733238 11.142858
14.645218 3.7843275 7.9676189 10.222222
15.052782 3.7629092 7.970531 8.5
15.27273 3.7359493 7.9733834 6.125
15.796799 3.7076004 7.9666529 8.5714283
16.330338 3.7238522 7.9660349 7.25
16.622667 3.6853175 7.9836655 9.5714283
16.954615 3.6650169 7.9870148 9.3000002
17.4354 3.6346123 7.9630508 4.7777781
17.884241 3.6540112 7.9676704 5.5
18.392586 3.6521473 7.785603 3
18.712873 3.7788205 7.8255444 9.5607347
18.933653 3.8086734 7.8639531 8.4285717
19.667877 3.605504 7.9878526 7
20.289808 3.9251449 7.6725583 2.1666667
20.678165 3.6393576 7.7218142 1
23.131376 3.6700652 7.6687269 3
23.434629 3.8797789 7.6704011 1
24.896706 3.81218 7.7875581 11.046448
30.706329 3.6301937 7.6178722 7
31.015823 3.773113 7.7863402 9.3566666
37.174931 3.7656784 7.8245268 7.9358974
37.234135 3.7992394 7.7589755 9.242424
40.51643 3.9956257 7.9906526 3
40.82412 3.8326476 7.966938 6
41.332428 3.9894576 7.9925079 6.5
41.747375 3.988904 7.98068 13
42.599716 3.9480085 7.970716 4.5
42.972275 3.8845725 7.8936963 12.5
43.347878 3.7645745 7.8042421 11.409091
43.780907 3.8902116 7.9946394 5.5
44.188061 3.8392293 7.9426837 9
44.712616 3.8472264 7.9529872 10.666667
45.411423 3.7666688 7.9695382 11
45.811325 3.8638258 7.9708066 5
46.286518 3.6929042 7.9525595 10.5
46.604313 3.7563298 7.9517417 12.833333
47.007629 3.7549677 7.9332724 6
47.375816 3.6695304 7.9754725 3.5
47.83514 3.6932633 7.9835863 9.5
48.181499 3.6899707 7.9463406 12.5
48.561211 3.6329961 7.9671016 4.5
48.987347 3.7588048 7.9641962 4.5
49.335201 3.6765347 7.9743524 9
49.895565 3.649394 7.8872809 4.6666665
50.89323 3.6373072 7.9736462 3
51.533421 3.6101112 7.9651818 5
51.855297 3.7886333 7.7707467 13.285714
52.019112 3.7732542 7.6136088 13
57.33004 3.939173 7.9871926 30
59.281784 3.9579258 7.9942923 15
60.324318 3.8538404 7.6898222 9.1999998
60.464443 3.7717574 7.8246117 11.666667
-52.872623 4.0799694 7.9144964 35
-6.1436095 4.1971054 7.7452478 15.806201
-5.9044137 4.2147636 7.7768755 9.119565
-5.1531086 4.1688528 7.6788511 10
0.26773417 4.2082496 7.8159423 13.933674
0.59755421 4.2221007 7.8396888 16.5
1.3357906 4.3723049 7.9983401 14
2.287966 4.3802819 7.7973704 9.333334
2.6844437 4.3418798 7.8897715 6.7037034
2.9677179 4.3768692 7.963119 11.166667
3.3960774 4.3733845 7.9496217 7.65625
3.8249631 4.3310747 7.9639168 9.9666662
4.2103372 4.3327432 7.9669886 11.404762
4.6014199 4.3202467 7.9619036 10.533334
5.0158029 4.3193498 7.953495 8.291667
5.4348774 4.2946267 7.9595809 8
5.8446002 4.251411 7.931695 9.4444447
6.3123808 4.2240515 7.844625 8.7601004
6.4775271 4.2025442 7.8212004 8.7235775
7.0301509 4.2131643 7.9603405 10.769231
7.380444 4.1921687 7.9806619 6.8888888
7.8884487 4.1767883 7.9890728 7
8.178277 4.1449304 7.9649282 6.8333335
8.7005672 4.09936 7.9553261 6.8571429
8.9957066 4.083056 7.9713645 7.5625
9.4171257 4.0882092 7.9839826 6.875
9.7753773 4.0385456 7.978189 9.166667
10.178656 4.0448022 7.9697275 8.4285717
10.560061 4.0552421 7.981061 6.5999999
10.862728 4.0254622 7.9167404 8
11.48569 4.0065584 7.9789944 7
12.579603 4.2014894 7.8138361 10.872222
15.441055 4.3629618 7.7204237 34
18.744413 4.2024679 7.7836456 9.810257
19.138527 4.2499189 7.8861232 7.5
19.860229 4.2911978 7.7190599 7.75
20.153978 4.0404749 7.7457709 7.75
23.594372 4.0054579 7.665956 1
23.729568 4.0714941 7.6760311 2.5
24.911753 4.1962028 7.7790561 10.293711
25.354549 4.1587567 7.6348877 17
27.391605 4.2571201 7.9352889 20.25
31.041656 4.1780415 7.7935185 8.7173071
31.835634 4.3748393 7.9330926 9
32.212959 4.3830051 7.9123745 5.25
32.567245 4.3526697 7.9379082 8.5
33.102573 4.3563304 7.9791818 11.75
33.381313 4.3454375 7.9565902 8
33.894581 4.3259425 7.9385414 12.380952
34.217587 4.3384118 7.9591784 10.166667
34.474735 4.3223038 7.9606733 12.25
34.967789 4.3189883 7.9447985 7.4615383
35.461155 4.2859488 7.9473572 12.25
35.68552 4.2621303 7.9441838 11.285714
36.193073 4.2694974 7.9677072 11.857142
36.549572 4.2695184 7.8976512 10.333333
37.166416 4.179565 7.8057299 9.1538458
37.245579 4.2022533 7.8014178 9.9933338
37.881218 4.1749759 7.9607239 6.5
38.319614 4.1493359 7.9747643 5
38.55611 4.2374344 7.940556 4
38.973492 4.1506624 7.9426851 5.1999998
39.403652 4.1378789 7.9763207 7.6666665
39.816265 4.115777 7.9750199 7
40.277073 4.0998249 7.9675655 9
40.547176 4.1919403 7.9855289 12.333333
41.051506 4.1034889 7.9934168 6
41.41304 4.0204692 7.9548831 7.3333335
41.849617 4.0126486 7.96451 4.5
42.165379 4.0686636 7.9741912 10
42.607117 4.1728163 7.9756985 14
43.373329 4.2012706 7.8079939 10.815788
46.546124 4.3285818 7.9993849 17.333334
47.098564 4.1239414 7.9001145 27
50.090355 4.3853073 7.9978523 20
50.580482 4.3863063 7.8915548 10
50.961548 4.3893509 7.923151 12
51.492722 4.3955154 7.8009138 8.5
51.89473 4.2602353 7.8192472 14.636364
52.658642 4.3750768 7.7951121 17.333334
52.993317 4.378242 7.7304516 28.333334
53.361847 4.3499656 7.8455915 18.700001
53.764679 4.3533158 7.7423215 23.125
54.09911 4.3172174 7.7912369 20.166666
54.551788 4.2972918 7.7633376 22.375
54.970619 4.2776151 7.7927575 20.464285
55.422119 4.2736673 7.783174 23.700001
55.764824 4.2398305 7.8181996 22.625
56.19619 4.209166 7.8384476 17.9
56.614586 4.2141042 7.7815275 18.1
56.955845 4.1748791 7.9167113 15.909091
57.413773 4.2042236 7.7829766 18.333334
57.7645 4.1838784 7.7732449 20.5
58.270912 4.1427736 7.7985187 17.5
58.647533 4.1344099 7.8596611 14.4
58.978691 4.1396971 7.7457461 21.444445
59.471886 4.1559496 7.8300562 12.8
59.870419 4.126955 7.7609415 20.25
60.237759 4.089766 7.7827601 18.375
60.472694 4.0748024 7.8938894 5
-6.1551418 4.6088753 7.7256184 19.375
-5.852922 4.6466284 7.7889886 9.5335817
-5.4507589 4.7344975 7.9233112 7.5907407
-5.008543 4.7175012 7.9488335 10.015433
-4.6135492 4.7454453 7.9448895 9.1088247
-4.2008758 4.6947436 7.9481907 8.227273
-3.821151 4.6853628 7.9265752 11.022727
-3.3774836 4.6727257 7.9464226 10.052631
-3.0182555 4.657465 7.9435182 9.2592592
-2.5955515 4.641531 7.9363637 9.9482756
-2.2433598 4.6264238 7.9424787 10.178572
-1.7916003 4.6284146 7.945322 8.4285717
-1.4564346 4.5853314 7.9253254 7.96875
-0.96362901 4.5953417 7.947103 9.0347223
-0.56715113 4.6068759 7.9397297 11
-0.21900752 4.5518565 7.9300332 10.286667
0.28273702 4.5768909 7.8068662 10.383721
0.57875633 4.5277748 7.9330916 10.717391
0.97041452 4.4810271 7.9460702 11.153846
1.3703797 4.5018215 7.9420242 10.5
1.8115342 4.479218 7.9546819 10.95
2.1879492 4.4526391 7.9281597 9.521739
2.6166821 4.4721761 7.9497461 11.9
2.9870224 4.4408269 7.957973 9.0714283
3.3319979 4.4650826 7.9544697 9.318182
3.8120005 4.4403524 7.9588976 10.75
4.0488071 4.4223871 7.9603424 8.25
5.027348 4.6611629 7.6656623 1
6.3630328 4.6039782 7.8881655 7.5
6.4483871 4.6159711 7.8071256 8.864583
6.8302894 4.647099 7.8909326 6.6666665
12.032913 4.5654979 7.6594691 23
12.588217 4.5948091 7.8026471 10.261905
12.989901 4.7416 7.9836512 7
14.58964 4.6511946 7.8874159 23
18.756914 4.6296072 7.782876 8.822916
18.879293 4.602365 7.7848129 9.1999998
19.491222 4.6489229 7.8038645 4.5
19.730465 4.5631461 7.7187853 2.2
20.00701 4.4390478 7.8268089 13
20.482002 4.7739897 7.9171324 19.5
22.681971 4.7680407 7.9209318 14
24.75309 4.7733345 7.8997684 5
24.93088 4.6322627 7.8087287 10.222619
25.91305 4.7555404 7.9458098 9.2777777
26.224836 4.7526884 7.9343357 8.75
26.584127 4.7455549 7.95225 8.5
27.014896 4.7198868 7.9434719 7.3076925
27.39469 4.6574073 7.9331918 8.8928576
27.848963 4.6584272 7.9653411 11.5
28.219971 4.6436863 7.9570107 9.036232
28.630093 4.5906649 7.9545598 8.5666666
28.959375 4.5546618 7.9495916 10.4
29.390778 4.5767546 7.9472127 8.427084
29.823288 4.5053844 7.946559 7.2249999
30.244289 4.4891839 7.9578042 6.3000002
30.608089 4.4316168 7.9467015 9.2857141
31.031427 4.6171565 7.7887893 8.634058
31.402588 4.4657898 7.9758506 9.6000004
31.83602 4.4955473 7.9561582 6.666667
32.070515 4.4725652 7.9570961 12
32.567783 4.4049273 7.9941745 9
32.996994 4.5064416 7.9611111 12.5
33.274578 4.5105524 7.9914532 13
33.785248 4.413702 7.9789381 5
34.238197 4.4860106 7.9353356 7.6666665
34.567989 4.4384346 7.8541503 7
34.91581 4.4162769 7.9139891 7
36.557423 4.7067814 7.9321828 6
37.171665 4.6078906 7.8308973 6.5
37.245125 4.6449962 7.7934065 10.026667
37.776787 4.6758518 7.9984493 6
38.68222 4.7823057 7.9950223 12.666667
40.057037 4.7701201 7.7486777 14
41.452759 4.6565638 7.9148102 16.666668
41.823357 4.758512 7.9534693 15.1
42.298248 4.7350054 7.9167452 15.916666
42.619156 4.7712016 7.9148788 12.55
43.026535 4.7642913 7.8495064 18.235294
43.382278 4.6433382 7.772922 12.637931
43.8283 4.7527909 7.8254447 20.888889
44.206219 4.737896 7.7364631 25.5
44.58955 4.7156205 7.7686849 23.82353
45.011536 4.6964612 7.8352842 19.322222
45.409061 4.6688967 7.7643867 22.133335
45.768398 4.6512146 7.8334503 18.25
46.212631 4.6370268 7.8021936 18.071428
46.586807 4.6161456 7.7702312 21.52174
47.016846 4.5913515 7.8053813 17.960318
47.407963 4.569128 7.784236 19.526316
47.837364 4.5556359 7.7808146 21.111111
48.227249 4.5285368 7.7856855 21.533335
48.582829 4.5173149 7.7851462 19.82353
48.985123 4.5124493 7.774981 22.040001
49.399509 4.4974551 7.8007607 21.166666
49.780785 4.4844689 7.7560759 21.357143
50.171253 4.4631419 7.8335676 17.81579
50.564533 4.4579773 7.7795572 22
50.998066 4.4412103 7.8115807 17.833334
51.358036 4.4442301 7.8158417 18.907406
51.74548 4.4223695 7.7511206 24.25
-6.1192203 4.9975276 7.7104044 16.75
-5.8382969 4.988605 7.7903299 8.9382706
-5.4238067 4.998343 7.9608054 13.908333
-5.0132809 4.9979372 7.9788423 14.828947
-4.6694221 4.9526634 7.9686098 14.75
-4.242589 5.0564566 7.9854016 16.679487
-3.8220427 5.0543103 7.9700127 18.052082
-3.4813485 5.1660357 7.9878478 22.125
-3.0606933 5.0067353 7.9892378 15.2
-2.652101 4.9673357 7.9789114 14.2
-2.2225211 4.9526792 7.9898524 16.222223
-1.793475 5.0135365 7.995697 15.5
-1.4661427 4.9707222 7.9730725 15
-1.0838045 5.0175681 7.9961219 15
-0.60011011 4.9697785 7.9854031 15.5
-0.21247029 4.8694749 7.9894218 8.666667
0.27527073 5.0036139 7.8094606 14.870371
0.6042946 5.0322995 7.8901086 15.166667
1.4255137 5.1280298 7.9648533 20.25
1.839293 4.8158569 7.6325598 1
2.2779617 5.0893531 7.9922113 21
3.2225246 5.1914835 7.9658556 34
5.0651579 4.8510628 7.650703 1
5.4196625 5.0683661 7.6208854 2
6.3777938 4.9449725 7.8699565 9.439394
6.4462628 5.0028586 7.8104925 9.0333328
6.8564415 4.9674196 7.8770113 7
9.3114395 5.0659556 7.9731655 35
12.398754 4.940752 7.9765382 10
12.610459 5.0114498 7.7852478 10.450758
13.322884 4.9167376 7.9996824 8
13.930338 5.0891852 7.8600602 25
14.218562 5.1939235 7.9964852 10.5
14.579781 5.1526194 7.9815688 12
14.912054 5.1476212 7.9696302 5.5
15.415009 5.1743011 7.977612 14.111111
15.849819 5.1773138 7.9469881 10.125
16.21447 5.1753192 7.9524298 8.5897436
16.585026 5.1690745 7.9483328 7.5119052
16.993977 5.1401787 7.9438624 8.022727
17.406521 5.1524191 7.9410758 7.4682546
17.82844 5.1332951 7.943439 7.6159425
18.132935 5.1168752 7.9512491 7.90625
18.712439 5.013885 7.8014321 9.3715267
18.926296 5.0643377 7.8184519 9.6083336
19.43063 5.0847096 7.9311452 12.230769
19.813829 5.061955 7.9434752 9.121212
20.181808 5.037693 7.954596 11.568966
20.628895 5.0411115 7.9324169 11.012346
20.985115 5.0022912 7.9531298 8.886364
21.350607 4.9892406 7.9398894 9.6499996
21.822668 4.980731 7.9510789 8.727273
22.207098 4.985311 7.9408541 8.0500002
22.606112 4.9354653 7.9370036 8.75
23.003838 4.9469757 7.94839 10
23.383476 4.8992963 7.9509101 9.5200005
23.798773 4.8906183 7.9406409 8.6944447
24.189983 4.8818326 7.9523001 8.8999996
24.605268 4.8604898 7.9545193 8.727273
24.938313 4.9853621 7.7995152 10.07258
25.396067 4.8602839 7.965848 13.8
25.831297 4.8262577 7.9696054 11.5
26.220373 4.9738679 7.940989 7.6666665
27.29895 4.8575954 7.9415731 4.5
29.194427 5.1687737 7.9766378 19
29.408182 4.8134356 7.9819078 7
29.997644 4.8066006 7.9589939 12
31.041584 4.9706182 7.7887707 10.206731
31.353424 5.055635 7.9862313 11
32.269154 4.9500895 7.9995499 16
33.137814 5.1589527 7.9987445 13
33.443447 5.1933966 7.9990792 10
33.680275 5.1983366 7.9383531 17.5
34.280704 5.1529832 7.9381924 10.666667
34.631924 5.1698928 7.9252186 11.714286
35.015671 5.1733961 7.8624167 12.861111
35.388371 5.1669078 7.8257813 14.2
35.756565 5.1586847 7.8246984 16.050926
36.188515 5.1512237 7.7672153 17.639534
36.580841 5.1296344 7.7927732 14.844443
37.041473 5.0637617 7.8130746 13.877778
37.321064 4.9991035 7.7623072 15
37.854721 5.0416474 7.8411841 19.447369
38.208481 5.0416498 7.8129592 19.632183
38.617107 5.012392 7.8025174 17.91839
38.996243 4.9890661 7.8395786 17.976562
39.401207 4.9752769 7.7819967 19.475491
39.808334 4.9495564 7.7827067 19.671875
40.244389 4.9321866 7.8053498 19.752687
40.626904 4.9163399 7.7749791 18.5
40.952984 4.8985167 7.8173385 19.080645
41.374954 4.8743172 7.7660699 21.528572
41.832348 4.854373 7.8289371 17.630434
42.111622 4.8417401 7.7713656 23.083334
42.607067 4.8243594 7.7490649 26.25
42.925594 4.8167272 7.7345901 21.25
44.159447 4.8164921 7.7918258 6
44.773987 4.8028193 7.6462941 8
-6.0890374 5.4092965 7.742384 16.027777
-5.8203969 5.4111285 7.8468089 14.094607
-5.3992095 5.4109578 7.9727988 17.495832
-4.991498 5.4216366 7.9744525 18.108109
-4.5955782 5.4046288 7.9770551 18.934313
-4.2384939 5.4288297 7.9764776 19.780436
-3.7877104 5.4407787 7.978301 18.583334
-3.3968177 5.4559278 7.9731302 20.538462
-3.0024042 5.3977857 7.9808993 17.670372
-2.639385 5.4054594 7.9754 20.115942
-2.2450593 5.4267578 7.9805326 18.255377
-1.8003666 5.404417 7.9842834 19.901516
-1.430451 5.4373698 7.9812646 19.049999
-1.0134804 5.4817548 7.9858875 16.647058
-0.63952649 5.5108705 7.9854674 15.749998
-0.21323335 5.4829984 7.9900141 16.058332
0.26179171 5.3948398 7.8397169 13.797873
0.59039062 5.3832569 7.9835801 17.821211
1.0255849 5.4861784 7.9849648 19.575001
1.4481969 5.4834557 7.9856343 17.236841
1.7997886 5.398695 7.97927 13.740741
2.1467979 5.4360366 7.9891009 16.5
2.5889797 5.5202904 7.985908 14.229167
3.0255086 5.4446049 7.9911036 14.948719
3.3178115 5.5004492 7.9882598 17.216667
3.7029622 5.4701285 7.9804988 13.305554
4.1639419 5.5013428 7.9921265 12.277778
4.6663547 5.4555335 7.9947824 11.25
4.9554706 5.5507669 7.9910173 20.885416
5.3459105 5.5305576 7.9719343 13.1
5.7518682 5.4874449 7.9129591 12.74
6.2814627 5.4763174 7.9084902 11.677084
6.4955812 5.4084358 7.7917428 8.6112452
6.9631224 5.5430341 7.9391332 13.071428
7.4085851 5.553432 7.976799 11.5
7.8247476 5.5347514 7.9771729 12.202382
8.2618361 5.5648789 7.9543805 11.504763
8.6401014 5.5391064 7.9582791 11.09375
8.9872684 5.5534892 7.9338727 9.7221088
9.3944502 5.520956 7.9437461 11.002315
9.8082476 5.5183587 7.927011 9.166667
10.186364 5.5036039 7.9367433 9.8311968
10.592366 5.4797807 7.920506 9.6411257
10.979741 5.4583826 7.9340754 9.2289677
11.380898 5.4519758 7.9392529 7.6182165
11.807115 5.4347444 7.9239354 8.693182
12.196547 5.4105673 7.9352865 10.18287
12.615704 5.3937535 7.8083444 10.083333
12.987485 5.3963432 7.9415092 8.3291674
13.380229 5.3602867 7.9394641 8.2016125
13.77274 5.3418708 7.9276896 8.4401045
14.240227 5.3249149 7.9376493 8.557971
14.603667 5.3180857 7.9235911 9.3307295
15.009933 5.3068585 7.9386492 9.8231707
15.371155 5.2795801 7.9245324 7.6437502
15.760438 5.2814384 7.9328985 8.6870966
16.190887 5.2641883 7.9216452 7.0900002
16.557573 5.3079314 7.9335017 8.6180553
16.995951 5.3206334 7.9403825 12.138888
17.349514 5.3142562 7.9600234 10.229166
17.755157 5.2525558 7.9364572 8.666667
18.220699 5.2633963 7.9754214 13.523809
18.739254 5.3924856 7.7872162 10.363889
18.858133 5.4433708 7.7924886 9.706522
19.427477 5.3294935 7.963304 13
19.996498 5.2969966 7.9926076 18
20.233131 5.3116236 7.9397526 16.25
20.663548 5.5316668 7.9050865 13
21.181372 5.3641248 7.6231494 14
21.55909 5.5108948 7.9266591 9
21.990864 5.4957004 7.7915049 6
22.343872 5.522337 7.8712883 13.5
22.448574 5.5545378 7.9795537 29
23.162142 5.4520602 7.7339625 11
23.426834 5.3320189 7.9981322 13
24.384235 5.2571478 7.663414 10
24.555563 5.5156531 7.9369946 13.916667
24.965305 5.4214258 7.8049221 11.040123
25.94175 5.5973682 7.8362885 7
26.203363 5.5573058 7.9244561 13.2
26.601936 5.5563426 7.8708501 12.108974
27.031185 5.5494504 7.8518686 12.467173
27.398783 5.5553722 7.805131 14.448149
27.796583 5.5279956 7.8167768 15.431373
28.195101 5.5126095 7.8038216 15.732704
28.60066 5.4949889 7.7898335 15.73282
28.993725 5.4867892 7.8097939 15.085119
29.381512 5.4574809 7.8190503 14.858757
29.804228 5.436276 7.8172708 13.649038
30.165459 5.4217286 7.821126 14.654087
30.583445 5.4057622 7.8139443 13.30814
31.009853 5.3606973 7.7997403 12.008163
31.365005 5.3690658 7.7857394 14.447917
31.802603 5.3556857 7.8140345 15.944907
32.216751 5.3375025 7.8045607 15.797297
32.625576 5.3146234 7.8138275 15.742064
32.985157 5.3045931 7.8093643 17.050001
33.369629 5.2871456 7.8052726 14.444445
33.818344 5.2617307 7.7972255 15.734849
34.21207 5.244369 7.7814369 14.767158
34.599014 5.2275667 7.7734089 18.655041
34.98077 5.2365432 7.7409425 15.52
35.343231 5.2144957 7.7628889 21.636364
35.832924 5.2921023 7.7032704 14.904761
36.021873 5.2144899 7.8189764 20
36.444073 5.2024841 7.6742334 15
37.761517 5.5127873 7.6877875 17
38.429771 5.5272379 7.6796331 9.5
39.39513 5.5199828 7.7286034 15
40.747177 5.5482221 7.6577916 19
42.57692 5.545414 7.8509035 10
43.002819 5.5485268 7.6229649 9
-6.1094103 5.7995615 7.7538614 14.666667
-5.8186898 5.7886701 7.8131313 12.406251
-5.3923635 5.8187132 7.9520302 17.535418
-5.005827 5.7844744 7.9524136 18.060331
-4.5780878 5.7997684 7.951685 18.674999
-4.1936035 5.8170137 7.9525523 18.211988
-3.7798593 5.8215408 7.9505196 18.263889
-3.3932755 5.7945051 7.9648423 18.402174
-2.9836617 5.8307714 7.9512687 17.075926
-2.6197472 5.7643948 7.9577637 18.597757
-2.1742303 5.833518 7.9621696 18.038334
-1.8026928 5.806694 7.9594688 17.648809
-1.4227735 5.8112597 7.9642529 16.757196
-1.0139502 5.8298144 7.9676366 15.783332
-0.60497171 5.8354688 7.9588962 15.567709
-0.21753733 5.8829708 7.9516225 14.180556
0.2814765 5.8083115 7.8573771 13.75
0.60425931 5.8527031 7.9075556 15.486773
0.97248048 5.8760619 7.9099555 13.309072
1.4193634 5.8684559 7.9165068 13.359903
1.8012115 5.8719344 7.9123745 12.550438
2.1939476 5.8407702 7.9231372 12.483716
2.6070812 5.8381252 7.9177656 12.252032
3.0088584 5.8411465 7.9171472 12.140625
3.4018147 5.8201547 7.906096 11.826484
3.7953742 5.8146276 7.9167075 12.116421
4.1864505 5.8021603 7.923131 12.032657
4.5943708 5.8095956 7.900075 11.736485
4.9943347 5.795145 7.9141302 10.368725
5.396769 5.7910848 7.9193168 10.379452
5.801754 5.7668972 7.9271364 10.49328
6.2079644 5.7332473 7.893188 9.666666
6.569243 5.7820268 7.8305588 9.734211
7.0279751 5.7494507 7.9445305 11.574561
7.4102764 5.7594199 7.945199 10.588028
7.801311 5.7710018 7.9452929 11.376542
8.1978893 5.75699 7.9254751 11.190822
8.5869198 5.7821827 7.9398766 11.812667
8.9681931 5.7954092 7.9432273 12.067204
9.3825369 5.8180223 7.9537811 12.865741
9.7900515 5.8194337 7.9678345 13.76875
10.23973 5.8399539 7.9696226 12.071969
10.579191 5.834342 7.9712019 14.173215
10.964496 5.8494077 7.981935 10.50139
11.392971 5.865334 7.983253 11.736364
11.790205 5.8349943 7.9792042 13.448766
12.227094 5.8311901 7.9833875 12.5
12.626368 5.7955174 7.8292899 11.732979
13.025556 5.8616095 7.9565015 11.857142
13.416479 5.8311057 7.9883904 15
13.799497 5.8286271 7.9858994 16.485609
14.167738 5.8236895 7.9807062 16.85
14.588075 5.8845921 7.9786043 13.946969
15.012773 5.8847003 7.9813008 17.363491
15.413105 5.8944526 7.9805846 15.950891
15.817833 5.8381987 7.9830046 18.333334
16.214342 5.8766794 7.9765029 15.824711
16.636557 5.9115319 7.960011 13.896111
17.016186 5.8901706 7.9576387 13.103703
17.413208 5.909142 7.9370518 11.968888
17.805454 5.9327335 7.8819981 12.578049
18.196592 5.9373317 7.8566332 14.66
18.630861 5.8807111 7.8430352 12.703002
18.88722 5.8462639 7.7633448 12.678333
19.416452 5.9131265 7.8036246 14.141026
19.833672 5.8949819 7.8117204 16.053192
20.19899 5.8743682 7.8360119 15.931885
20.596613 5.8602996 7.8044596 16.897678
20.99202 5.8454309 7.8261418 14.73122
21.39777 5.8367009 7.7935057 16.034128
21.78896 5.8163962 7.8116417 14.916667
22.194017 5.7923017 7.8321075 14.751143
22.610477 5.7765918 7.8092752 15.239419
23.025658 5.77247 7.8092546 14.074562
23.403034 5.7529607 7.8058796 13.8375
23.801636 5.7439752 7.817493 15.04878
24.192085 5.7346568 7.8009934 17.665115
24.562851 5.7133088 7.7812829 18.553192
24.980503 5.6822891 7.7889032 13.166668
25.385025 5.6750321 7.8255725 16.46875
25.784954 5.6630821 7.818747 18.520203
26.227898 5.64221 7.7779174 15.475806
26.572542 5.6254039 7.8005009 16.978207
26.974426 5.6246772 7.7141461 19.878786
27.440231 5.6141858 7.808496 19.666666
27.853508 5.7089653 7.7856483 18
28.448404 5.610106 7.6150508 13
29.078785 5.6251602 7.7668138 15
-6.1072059 6.2015166 7.6611209 14.074074
-5.7715955 6.1729007 7.8155107 10.90113
-5.4056907 6.1949749 7.8580585 13.056962
-5.0059147 6.1650147 7.8757257 13.08306
-4.6152763 6.1710644 7.880475 13.367646
-4.1918998 6.1582828 7.8767381 13.556879
-3.7882066 6.1781554 7.8457227 11.711355
-3.4132769 6.1403265 7.870821 12.121667
-3.0167148 6.1467876 7.8744278 13.282787
-2.5969479 6.1339054 7.8652534 12.911565
-2.1905618 6.1363277 7.8564019 11.568334
-1.8013992 6.1374121 7.8615866 12.75532
-1.4122555 6.1138263 7.8493037 9.8546515
-1.0066681 6.1227903 7.8775363 10.714286
-0.635185 6.1229739 7.8636594 11.15625
-0.21326619 6.1036592 7.8705897 10.5
0.21984126 6.1924729 7.8314462 15.046876
0.59920466 6.1622362 7.862524 14.247746
1.00283 6.2444458 7.8976703 14.027777
1.4037763 6.2433653 7.9005208 14.914773
1.8213307 6.2081466 7.9117208 13.808824
2.1925011 6.2433896 7.9252005 13.880393
2.5925798 6.2056193 7.9193096 13.706004
2.9938791 6.229157 7.9310751 13.508012
3.3993616 6.2295132 7.9390793 15.165205
3.8180506 6.2338996 7.9390311 14.404513
4.1860094 6.2116623 7.9438982 13.765277
4.5884647 6.2349839 7.9478269 14.439367
4.9908185 6.2115092 7.9490099 13.422486
5.3790169 6.2051263 7.9574227 13.940476
5.7817264 6.2205615 7.9562292 12.757861
6.2304153 6.1873379 7.9336371 15.658335
6.5569282 6.1999092 7.8402796 12.463865
6.9930525 6.2015486 7.9437914 13.734494
7.4065962 6.2242684 7.9622202 16.284246
7.8048434 6.2246628 7.9575052 15.083332
8.1785097 6.2124696 7.9567785 14.300365
8.6006289 6.2398248 7.9475813 14.777778
8.982295 6.2174644 7.9450951 15.033334
9.3830309 6.2440228 7.9241452 13.639982
9.7948637 6.2774982 7.8891549 13.634366
10.179379 6.2836275 7.8674827 14.064628
10.599052 6.2832193 7.8436894 15.608196
11.003707 6.279788 7.8455515 13.83503
11.402787 6.268075 7.8192196 15.988898
11.787605 6.2315879 7.8303962 15.608912
12.206194 6.2261291 7.8369341 14.186581
12.604104 6.1786203 7.7952433 13.209639
12.993263 6.1950965 7.8505306 13.550847
13.39129 6.1775589 7.8428226 14.462556
13.800321 6.1776543 7.8079624 15.921429
14.190488 6.1588697 7.8262701 15.247138
14.602414 6.1341877 7.8260908 13.833901
15.000334 6.1169004 7.8227944 15.362245
15.404463 6.1022615 7.8151445 16.235506
15.814231 6.0858154 7.7969851 14.440811
16.178663 6.0732956 7.8059025 14.476325
16.584799 6.057682 7.7991352 14.876713
16.984303 6.0513587 7.7781725 14.736112
17.379726 6.041914 7.7901306 17.536549
17.809233 6.0190439 7.7497201 18.410257
18.231745 6.0199056 7.7207003 18.869566
18.666826 6.0219636 7.7331514 15.5
18.971125 6.0150561 7.8059425 16.666666
-6.0925436 6.5835457 7.7666669 17.714285
-5.7813835 6.6532092 7.8068929 12.681818
-5.3870025 6.6045871 7.879499 16.145239
-4.9781351 6.6122074 7.8790526 15.911112
-4.598628 6.6133323 7.8810239 17.769381
-4.191956 6.590589 7.8860359 19.385714
-3.7841537 6.6437178 7.8837051 17.126356
-3.3924994 6.5914707 7.8894668 16.822222
-3.0146537 6.61342 7.8868828 16.193781
-2.6110797 6.6500635 7.8893647 16.732559
-2.2284458 6.6269293 7.8957109 17.41312
-1.8217076 6.6114488 7.8920689 18.206945
-1.4202982 6.6222854 7.8972788 15.160686
-0.99517685 6.6174941 7.8906169 15.489582
-0.62029314 6.603405 7.9089079 15.295978
-0.21899518 6.6049585 7.8986936 13.389584
0.26411679 6.5851216 7.8181715 13.359259
0.61346918 6.610393 7.8942566 15.255953
1.0054953 6.6157131 7.8932061 16.306944
1.4191726 6.6275673 7.8813429 14.83
1.8086256 6.6296124 7.8743134 15.055159
2.1932786 6.6633992 7.8397636 13.92389
2.6142268 6.6576953 7.8360772 14.437499
2.9936423 6.6523466 7.831512 13.235577
3.3996136 6.6582975 7.8170133 13.16195
3.8060963 6.6255217 7.8300843 14.599108
4.1956248 6.6123257 7.8225222 13.263056
4.597856 6.5991073 7.8213487 14.573132
4.9731388 6.5743885 7.8225098 13.496914
5.3961558 6.5761218 7.8148541 14.451122
5.8022203 6.5608468 7.8043046 13.740399
6.1858921 6.5518289 7.7981567 16.103125
6.5842514 6.5029063 7.8031039 11.947489
7.0255752 6.5174747 7.8022261 14.935769
7.3967061 6.5046697 7.7875981 14.419175
7.8063726 6.4810715 7.7965369 13.040779
8.2048998 6.4676394 7.7809391 14.860283
8.6043196 6.4523253 7.7655535 15.188553
8.9768877 6.4355626 7.7685847 14.204225
9.3956213 6.4248495 7.7319841 16.74317
9.7082272 6.4187198 7.7020864 16.925926
10.134089 6.409832 7.8216767 11.666667
10.438531 6.4073172 7.6427984 26
11.368084 6.4089775 7.6549006 7
-6.0587783 6.8466969 7.8002 18
-5.7673211 6.995296 7.7723961 12.37
-5.4082022 7.025619 7.7807398 14.55324
-5.0026274 7.0117798 7.7864618 13.972637
-4.5990186 6.9788132 7.7950778 13.950249
-4.1979856 6.9843645 7.7829351 14.02422
-3.8058145 6.9786839 7.7806683 13.721539
-3.4146807 6.9744086 7.773068 13.36389
-3.0033882 6.9622293 7.7719517 13.007649
-2.5868063 6.9500947 7.7530456 13.957711
-2.20646 6.945621 7.7596531 11.919884
-1.7969344 6.9203815 7.7703767 13.471265
-1.3968275 6.9255934 7.7680054 13.382143
-0.98857713 6.896204 7.777194 14.182843
-0.58251208 6.891593 7.7766209 13.669842
-0.20595351 6.8780589 7.7776203 11.802814
0.17348586 6.864687 7.7878766 11.333333
0.64889956 6.855175 7.7426825 14.626125
1.0022533 6.8444042 7.7505255 15.806911
1.3902154 6.8276958 7.744874 13.736486
1.8014634 6.8202529 7.7357178 14.583334
2.1461506 6.8143244 7.7012224 15.214286
2.4512563 6.8044605 7.6992865 17
3.0955391 6.808259 7.6683211 14
-32.766693 7.5950022 7.8972011 14
-5.6237078 7.2027054 7.8090582 6
-4.4594793 7.5529585 7.7498393 9.5
-4.2352743 7.2697353 7.9013467 17
-3.6254339 7.466857 7.732192 7
-3.5235612 7.3114061 7.891561 23
-2.845202 7.347054 7.7563305 18.5
-2.1286626 7.2629004 7.7019873 20
-20.960159 11.0804 7.6883178 33
-19.725471 11.043322 7.6419172 47
-20.556034 11.416668 7.9239378 11
-23.677238 12.302059 7.8971558 15.5
-21.285402 12.13136 7.69133 66
-23.612194 12.471109 7.6491222 14
-23.438366 12.575366 7.9842734 27
-20.793999 12.597085 7.6466722 11
-20.100555 12.778051 7.9403753 18
-19.772572 12.726183 7.9103589 34
-23.735157 12.93668 7.7032528 23
-23.170855 12.892178 7.9237118 20
-20.679564 12.863256 7.6185713 23
-20.389286 12.824152 7.8084955 12
-19.946245 12.861137 7.7250504 15
-18.033424 14.743842 7.7187219 9
-22.174883 22.895967 7.6308379 22
-25.112785 -20.740255 8.2552795 12
-23.885044 -19.202906 8.2741003 8
-21.662525 -19.387245 8.2775135 4
-20.925854 -19.305298 8.246459 19
-20.340851 -19.238144 8.1677237 46
-25.143864 -19.185331 8.3062067 10
-20.301422 -18.020365 8.3318577 7
48.548592 -16.842251 8.0025835 17
49.705643 -16.942944 8.000886 32
51.267731 -17.001278 8.0022907 7
52.167839 -16.852383 8.009201 16
52.765678 -16.898808 8.000308 23
54.243599 -16.88439 8.0141993 31
55.06559 -16.89929 8.0193319 7
55.431091 -16.809803 8.0039568 19
55.767139 -16.874632 8.0064573 17.5
56.532055 -16.859257 8.0067129 22.333334
57.059486 -16.874123 8.0058641 26
57.95932 -16.950623 8.0146065 27
58.553719 -17.037495 8.004962 25
59.04995 -17.076527 8.0175877 10
59.347198 -17.014973 8.0148401 25
59.689651 -17.043043 8.0055094 22
40.49543 -16.551304 8.0251999 13
40.90554 -16.533825 8.0038157 13
42.280552 -16.554722 8.001708 13
42.534859 -16.438602 8.0285454 14
43.150654 -16.558811 8.0245008 16
43.332504 -16.482763 8.0064955 15.666667
43.678802 -16.516569 8.0016479 18
44.240204 -16.464451 8.0086594 14
44.772018 -16.428854 8.0090618 7
45.016907 -16.524435 8.0194426 11.333333
45.332306 -16.587114 8.0259409 9
45.789322 -16.442289 8.0060778 17.666666
46.256378 -16.452845 8.0128889 18.888887
47.108784 -16.618948 8.0048981 17.833334
47.438084 -16.440542 8.017868 20.333334
47.653046 -16.40406 8.0260572 25
48.273434 -16.540552 8.0411453 9.833333
48.700256 -16.508413 8.0089798 14.75
48.98056 -16.555485 8.0044756 13.861111
49.435898 -16.558701 8.0197582 16.018518
49.734962 -16.563509 8.0095749 14.8125
50.109703 -16.56509 8.0251627 16.5
50.639408 -16.575373 8.0184317 19.916666
50.911488 -16.529545 8.0309916 18.200001
51.22213 -16.505394 8.0226212 15.5
51.917324 -16.473593 8.0173407 13.277778
52.199158 -16.681654 8.0080881 21.166666
52.62849 -16.573832 8.0165863 17.035715
53.065201 -16.63171 8.0117483 20.416666
53.430767 -16.710777 8.0075493 27
53.748852 -16.683182 8.0075178 17
54.213135 -16.640491 8.0133562 15.75
54.599747 -16.703688 8.0261717 24.666666
54.955212 -16.730494 8.0049543 18
55.387913 -16.582541 8.0133057 19.333334
55.857632 -16.515137 8.024415 13
56.305424 -16.563643 8.0502501 20
56.984116 -16.575041 8.0173998 15.875
57.39917 -16.667101 8.0208855 15.75
57.823055 -16.561464 8.0381012 17.714285
58.154575 -16.504377 8.0234041 13.714286
58.6208 -16.534441 8.0147619 21
59.012383 -16.539053 8.0375347 20.481483
59.341278 -16.606129 8.0383701 19.5
59.695782 -16.605841 8.0339832 16.799999
24.215921 -16.034924 8.0202484 9.5
30.78159 -16.079464 8.0008249 7
39.451176 -16.141872 8.0145817 14.5
40.119781 -16.128029 8.0107841 14
41.444874 -16.207722 8.0154734 17.4
41.784119 -16.201704 8.0122709 18
42.16811 -16.202709 8.0091057 16.928572
42.677776 -16.171318 8.0135641 25.333334
42.897762 -16.291719 8.0282021 16.166666
43.439705 -16.270313 8.0123806 14.738095
43.840969 -16.321707 8.0126553 18.428572
44.253967 -16.13689 8.019928 10.6
44.561443 -16.166248 8.0301723 11.476191
45.011879 -16.17263 8.0224886 16.833334
45.422829 -16.224283 8.0060291 14.8125
45.806618 -16.10071 8.0214567 12.25
46.221264 -16.142962 8.0139894 14.71875
46.581104 -16.127535 8.0248547 15.166667
46.982193 -16.085869 8.0279636 18.89394
47.459427 -16.097067 8.0301905 18.704546
47.839268 -16.159603 8.034585 14.20238
48.204166 -16.180334 8.0314054 14.520833
48.542114 -16.123285 8.0335627 18.226191
48.997719 -16.133965 8.0433655 14.186275
49.414276 -16.150261 8.0336008 17.987038
49.825592 -16.14325 8.0400524 18.495098
50.20396 -16.178028 8.040534 16.125
50.560177 -16.140841 8.0557489 18.093056
50.968296 -16.140202 8.0558853 19.095238
51.366699 -16.190266 8.0617208 21
51.806194 -16.192909 8.0423861 14.916667
52.244648 -16.176861 8.0551682 19.011904
52.679413 -16.181831 8.0519629 19.514706
53.009361 -16.185167 8.0558929 20.277779
53.356941 -16.233425 8.0426302 20.798246
53.786278 -16.170582 8.0526161 21.096491
54.251972 -16.195301 8.0519791 22.375
54.596909 -16.178635 8.0543737 22.244444
54.944759 -16.176092 8.0539637 24
55.381287 -16.194498 8.0561857 23.416666
55.801804 -16.20532 8.0559626 21.766666
56.130421 -16.185242 8.0573797 21.541666
56.575104 -16.183884 8.0547256 26.178572
57.029881 -16.258478 8.0495806 23.833334
57.39502 -16.23711 8.070118 22.85
57.71772 -16.214243 8.0505714 24.444445
58.242531 -16.235844 8.0700932 21.4
58.59483 -16.218466 8.058157 27.111111
59.001869 -16.147057 8.0845308 24.3125
59.466114 -16.211863 8.0845642 26.35
59.78722 -16.162764 8.067914 17.416666
60.02388 -16.370827 8.1146069 17
26.840302 -15.741255 8.0927105 28
28.407915 -15.612151 8.0093756 5
29.528805 -15.612749 8.01192 4
29.887156 -15.776636 8.0263233 10
30.133276 -15.749984 8.0170164 12.333333
30.604357 -15.87075 8.0241489 9.666667
31.048506 -15.712556 8.0068188 20.25
31.821569 -15.716496 8.0205908 18.75
32.589668 -15.899252 8.0183477 6
32.9575 -15.742264 8.0074654 19.666666
33.343922 -15.741118 8.0175066 11.333333
33.868843 -15.757304 8.0094948 14.25
34.241192 -15.674716 8.033289 14
34.621147 -15.700693 8.0257111 17
35.960754 -15.847191 8.0041189 26
36.381523 -15.741136 8.0292006 8
37.449947 -15.626799 8.0100536 13
37.811474 -15.675721 8.0094261 13.333333
38.221451 -15.633018 8.0167923 13
38.598618 -15.657484 8.0228949 18.333332
39.015762 -15.65189 8.0160198 18.148148
39.445503 -15.669646 8.023757 16.083334
39.775517 -15.741815 8.0218801 13.714286
40.219631 -15.70537 8.0275812 19.678572
40.595863 -15.702035 8.0256987 17.142857
41.005711 -15.698453 8.038496 17.594696
41.401257 -15.747974 8.0370674 16.519047
41.788239 -15.721202 8.0439634 20.657141
42.257259 -15.743429 8.0558701 19.058332
42.598804 -15.772061 8.048605 21.921053
42.972008 -15.788703 8.0516882 16.461538
43.419685 -15.758165 8.0614786 16.741665
43.840141 -15.790282 8.0529375 15.476191
44.221027 -15.774983 8.0628328 17.07843
44.572765 -15.802939 8.0561533 18.160713
44.970741 -15.772667 8.0602465 17.204762
